VERSION .7
FIELDS x y z
SIZE 4 4 4
TYPE F F F
COUNT 1 1 1
WIDTH 1139
HEIGHT 1
POINTS 1139
DATA ascii
-38.9845880382819 -11.1600025255801 -1483 
-44.7340730866019 -11.2051542552858 -1489 
-50.5624210911692 -11.2578312732757 -1496 
-56.6686671320368 -11.3556600209713 -1509 
-62.8725530234964 -11.4534887686669 -1522 
94.2938080197688 -16.6722761938117 -1477 
87.9659946256348 -16.5255330722684 -1464 
81.7921517651267 -16.3900778831514 -1452 
76.3393416474515 -16.3900778831514 -1452 
70.5936119780005 -16.3223502885929 -1446 
64.8929468549765 -16.2546226940345 -1440 
59.4852012837285 -16.2546226940345 -1440 
54.0774557124804 -16.2546226940345 -1440 
48.8725006001542 -16.3223502885929 -1446 
43.2619645699844 -16.2546226940345 -1440 
37.8542189987363 -16.2546226940345 -1440 
32.5816670667695 -16.3223502885929 -1446 
27.1513892223079 -16.3223502885929 -1446 
21.7211113778463 -16.3223502885929 -1446 
16.2908335333847 -16.3223502885929 -1446 
10.8605556889232 -16.3223502885929 -1446 
5.43027784446158 -16.3223502885929 -1446 
0 -16.2546226940345 -1440 
-5.43027784446158 -16.3223502885929 -1446 
-10.8605556889232 -16.3223502885929 -1446 
-16.2908335333847 -16.3223502885929 -1446 
-21.9013695635546 -16.4578054777099 -1458 
-27.4893733205109 -16.5255330722684 -1464 
-33.1224416238943 -16.5932606668268 -1470 
-38.9845880382819 -16.7400037883702 -1483 
-44.7340730866019 -16.8077313829287 -1489 
-50.5624210911692 -16.8867469099136 -1496 
-56.6686671320368 -17.0334900314569 -1509 
-62.8725530234964 -17.1802331530003 -1522 
94.2938080197688 -22.229701591749 -1477 
87.9659946256348 -22.0340440963578 -1464 
82.1301358633297 -21.9437406369465 -1458 
76.3393416474515 -21.8534371775352 -1452 
70.5936119780005 -21.7631337181239 -1446 
64.8929468549765 -21.6728302587126 -1440 
59.4852012837285 -21.6728302587126 -1440 
54.0774557124804 -21.6728302587126 -1440 
48.6697101412324 -21.6728302587126 -1440 
43.2619645699844 -21.6728302587126 -1440 
37.8542189987363 -21.6728302587126 -1440 
32.4464734274883 -21.6728302587126 -1440 
27.0387278562402 -21.6728302587126 -1440 
21.6309822849922 -21.6728302587126 -1440 
16.2232367137441 -21.6728302587126 -1440 
10.8605556889232 -21.7631337181239 -1446 
5.43027784446158 -21.7631337181239 -1446 
0 -21.6728302587126 -1440 
-5.40774557124804 -21.6728302587126 -1440 
-10.8605556889232 -21.7631337181239 -1446 
-16.3584303530253 -21.8534371775352 -1452 
-21.9013695635546 -21.9437406369465 -1458 
-27.4893733205109 -22.0340440963578 -1464 
-32.9872479846131 -22.0340440963578 -1464 
-38.8268621257872 -22.229701591749 -1477 
-44.7340730866019 -22.4103085105716 -1489 
-50.5624210911692 -22.5156625465514 -1496 
-56.6686671320368 -22.7113200419426 -1509 
-62.5833888505893 -22.8016235013539 -1515 
-68.9036914869855 -23.0123315733136 -1529 
93.8469179343671 -27.6554344447114 -1470 
87.9659946256348 -27.5425551204473 -1464 
81.7921517651267 -27.316796471919 -1452 
76.3393416474515 -27.316796471919 -1452 
70.5936119780005 -27.2039171476549 -1446 
65.1633341335389 -27.2039171476549 -1446 
59.7330562890773 -27.2039171476549 -1446 
53.8521329803451 -26.9781584991266 -1434 
48.6697101412324 -27.0910378233908 -1440 
43.2619645699844 -27.0910378233908 -1440 
37.6964930862416 -26.9781584991266 -1434 
32.3112797882071 -26.9781584991266 -1434 
26.9260664901725 -26.9781584991266 -1434 
21.6309822849922 -27.0910378233908 -1440 
16.2908335333847 -27.2039171476549 -1446 
10.8605556889232 -27.2039171476549 -1446 
5.43027784446158 -27.2039171476549 -1446 
0 -27.0910378233908 -1440 
-5.40774557124804 -27.0910378233908 -1440 
-10.8605556889232 -27.2039171476549 -1446 
-16.2908335333847 -27.2039171476549 -1446 
-21.8112404707004 -27.316796471919 -1452 
-27.3767119544432 -27.4296757961832 -1458 
-32.9872479846131 -27.5425551204473 -1464 
-38.64284856121 -27.6554344447114 -1470 
-44.5538149008936 -27.9000063139504 -1483 
-50.5624210911692 -28.1445781831893 -1496 
-56.6686671320368 -28.3891500524282 -1509 
-62.5833888505893 -28.5020293766924 -1515 
-69.4895305905374 -29.0099863358809 -1542 
93.8469179343671 -33.1865213336537 -1470 
87.9659946256348 -33.0510661445367 -1464 
81.7921517651267 -32.7801557663028 -1452 
76.0238898224621 -32.6447005771859 -1446 
70.5936119780005 -32.6447005771859 -1446 
65.1633341335389 -32.6447005771859 -1446 
59.7330562890773 -32.6447005771859 -1446 
54.0774557124804 -32.5092453880689 -1440 
48.4669196823106 -32.373790198952 -1434 
43.2619645699844 -32.5092453880689 -1440 
37.8542189987363 -32.5092453880689 -1440 
32.3112797882071 -32.373790198952 -1434 
26.9260664901725 -32.373790198952 -1434 
21.6309822849922 -32.5092453880689 -1440 
16.2908335333847 -32.6447005771859 -1446 
10.8605556889232 -32.6447005771859 -1446 
5.43027784446158 -32.6447005771859 -1446 
0 -32.5092453880689 -1440 
-5.40774557124804 -32.5092453880689 -1440 
-10.8154911424961 -32.5092453880689 -1440 
-16.2908335333847 -32.6447005771859 -1446 
-21.8112404707004 -32.7801557663028 -1452 
-27.3767119544432 -32.9156109554198 -1458 
-32.9872479846131 -33.0510661445367 -1464 
-38.64284856121 -33.1865213336537 -1470 
-44.5538149008936 -33.4800075767404 -1483 
-50.5624210911692 -33.7734938198272 -1496 
-56.6686671320368 -34.0669800629139 -1509 
-62.8725530234964 -34.3604663060006 -1522 
93.8469179343671 -38.717608222596 -1470 
87.9659946256348 -38.5595771686262 -1464 
82.1301358633297 -38.4015461146564 -1458 
76.0238898224621 -38.0854840067169 -1446 
70.5936119780005 -38.0854840067169 -1446 
65.1633341335389 -38.0854840067169 -1446 
59.7330562890773 -38.0854840067169 -1446 
54.0774557124804 -37.9274529527471 -1440 
48.4669196823106 -37.7694218987773 -1434 
43.2619645699844 -37.9274529527471 -1440 
37.8542189987363 -37.9274529527471 -1440 
32.3112797882071 -37.7694218987773 -1434 
26.9260664901725 -37.7694218987773 -1434 
21.540853192138 -37.7694218987773 -1434 
16.2232367137441 -37.9274529527471 -1440 
10.8154911424961 -37.9274529527471 -1440 
5.40774557124804 -37.9274529527471 -1440 
0 -37.9274529527471 -1440 
-5.40774557124804 -37.9274529527471 -1440 
-10.8154911424961 -37.9274529527471 -1440 
-16.2908335333847 -38.0854840067169 -1446 
-21.8112404707004 -38.2435150606866 -1452 
-27.3767119544432 -38.4015461146564 -1458 
-32.9872479846131 -38.5595771686262 -1464 
-38.64284856121 -38.717608222596 -1470 
-44.5538149008936 -39.0600088395305 -1483 
-50.5624210911692 -39.402409456465 -1496 
-56.4057906112122 -39.5604405104348 -1502 
-62.8725530234964 -40.0872106903341 -1522 
93.8469179343671 -44.2486951115383 -1470 
87.9659946256348 -44.0680881927157 -1464 
81.7921517651267 -43.7068743550704 -1452 
76.0238898224621 -43.5262674362478 -1446 
70.5936119780005 -43.5262674362478 -1446 
64.8929468549765 -43.3456605174252 -1440 
59.2373462783796 -43.1650535986026 -1434 
53.8521329803451 -43.1650535986026 -1434 
48.2641292233888 -42.98444667978 -1428 
42.9014481985678 -42.98444667978 -1428 
37.6964930862416 -43.1650535986026 -1434 
32.3112797882071 -43.1650535986026 -1434 
26.9260664901725 -43.1650535986026 -1434 
21.540853192138 -43.1650535986026 -1434 
16.2232367137441 -43.3456605174252 -1440 
10.770426596069 -43.1650535986026 -1434 
5.40774557124804 -43.3456605174252 -1440 
0 -43.3456605174252 -1440 
-5.40774557124804 -43.3456605174252 -1440 
-10.8154911424961 -43.3456605174252 -1440 
-16.2908335333847 -43.5262674362478 -1446 
-21.8112404707004 -43.7068743550704 -1452 
-27.3767119544432 -43.8874812738931 -1458 
-32.9872479846131 -44.0680881927157 -1464 
-38.64284856121 -44.2486951115383 -1470 
-44.5538149008936 -44.6400101023206 -1483 
-50.5624210911692 -45.0313250931029 -1496 
-56.4057906112122 -45.2119320119255 -1502 
-62.8725530234964 -45.8139550746675 -1522 
-69.4895305905374 -46.4159781374095 -1542 
93.8469179343671 -49.7797820004805 -1470 
87.9659946256348 -49.5765992168051 -1464 
81.7921517651267 -49.1702336494542 -1452 
76.3393416474515 -49.1702336494542 -1452 
70.5936119780005 -48.9670508657788 -1446 
64.8929468549765 -48.7638680821034 -1440 
59.2373462783796 -48.560685298428 -1434 
53.6268102482098 -48.3575025147525 -1428 
48.2641292233888 -48.3575025147525 -1428 
42.9014481985678 -48.3575025147525 -1428 
37.5387671737468 -48.3575025147525 -1428 
32.1760861489259 -48.3575025147525 -1428 
26.9260664901725 -48.560685298428 -1434 
21.540853192138 -48.560685298428 -1434 
16.1556398941035 -48.560685298428 -1434 
10.770426596069 -48.560685298428 -1434 
5.40774557124804 -48.7638680821034 -1440 
0 -48.7638680821034 -1440 
-5.40774557124804 -48.7638680821034 -1440 
-10.8154911424961 -48.7638680821034 -1440 
-16.2908335333847 -48.9670508657788 -1446 
-21.7211113778463 -48.9670508657788 -1446 
-27.3767119544432 -49.3734164331297 -1458 
-32.9872479846131 -49.5765992168051 -1464 
-38.64284856121 -49.7797820004805 -1470 
-44.5538149008936 -50.2200113651106 -1483 
-50.5624210911692 -50.6602407297407 -1496 
-56.6686671320368 -51.1004700943708 -1509 
-62.8725530234964 -51.5406994590009 -1522 
-69.4895305905374 -52.2179754045857 -1542 
94.2938080197688 -55.5742539793725 -1477 
87.9659946256348 -55.0851102408946 -1464 
82.1301358633297 -54.8593515923663 -1458 
76.3393416474515 -54.6335929438381 -1452 
70.8865315297764 -54.6335929438381 -1452 
65.1633341335389 -54.4078342953098 -1446 
59.4852012837285 -54.1820756467815 -1440 
53.8521329803451 -53.9563169982533 -1434 
48.2641292233888 -53.730558349725 -1428 
43.0817063842761 -53.9563169982533 -1434 
37.6964930862416 -53.9563169982533 -1434 
32.1760861489259 -53.730558349725 -1428 
26.9260664901725 -53.9563169982533 -1434 
21.540853192138 -53.9563169982533 -1434 
16.1556398941035 -53.9563169982533 -1434 
10.770426596069 -53.9563169982533 -1434 
5.40774557124804 -54.1820756467815 -1440 
0 -54.1820756467815 -1440 
-5.38521329803451 -53.9563169982533 -1434 
-10.8154911424961 -54.1820756467815 -1440 
-16.2908335333847 -54.4078342953098 -1446 
-21.7211113778463 -54.4078342953098 -1446 
-27.3767119544432 -54.8593515923663 -1458 
-32.9872479846131 -55.0851102408946 -1464 
-38.64284856121 -55.3108688894228 -1470 
-44.7340730866019 -56.025771276429 -1489 
-50.3258322224271 -56.025771276429 -1489 
-56.4057906112122 -56.5149150149069 -1502 
-62.8725530234964 -57.2674438433344 -1522 
-69.4895305905374 -58.0199726717619 -1542 
93.8469179343671 -60.8419557783651 -1470 
87.9659946256348 -60.593621264984 -1464 
81.7921517651267 -60.0969522382219 -1452 
76.3393416474515 -60.0969522382219 -1452 
70.5936119780005 -59.8486177248408 -1446 
65.1633341335389 -59.8486177248408 -1446 
59.4852012837285 -59.6002832114597 -1440 
53.8521329803451 -59.3519486980786 -1434 
48.2641292233888 -59.1036141846975 -1428 
42.9014481985678 -59.1036141846975 -1428 
37.5387671737468 -59.1036141846975 -1428 
32.1760861489259 -59.1036141846975 -1428 
26.8134051241049 -59.1036141846975 -1428 
21.540853192138 -59.3519486980786 -1434 
16.1556398941035 -59.3519486980786 -1434 
10.725362049642 -59.1036141846975 -1428 
5.40774557124804 -59.6002832114597 -1440 
0 -59.3519486980786 -1434 
-5.38521329803451 -59.3519486980786 -1434 
-10.8154911424961 -59.6002832114597 -1440 
-16.2232367137441 -59.6002832114597 -1440 
-21.7211113778463 -59.8486177248408 -1446 
-27.3767119544432 -60.3452867516029 -1458 
-32.9872479846131 -60.593621264984 -1464 
-38.64284856121 -60.8419557783651 -1470 
-44.7340730866019 -61.6283484040719 -1489 
-50.5624210911692 -61.9180720030165 -1496 
-56.4057906112122 -62.1664065163975 -1502 
-62.8725530234964 -62.9941882276678 -1522 
-69.8049824155268 -64.1116935378827 -1549 
93.8469179343671 -66.3730426673074 -1470 
87.6054782542183 -65.8312219108396 -1458 
81.7921517651267 -65.5603115326057 -1452 
76.0238898224621 -65.2894011543717 -1446 
70.5936119780005 -65.2894011543717 -1446 
64.8929468549765 -65.0184907761378 -1440 
59.4852012837285 -65.0184907761378 -1440 
53.8521329803451 -64.7475803979039 -1434 
48.2641292233888 -64.47667001967 -1428 
42.9014481985678 -64.47667001967 -1428 
37.5387671737468 -64.47667001967 -1428 
32.1760861489259 -64.47667001967 -1428 
26.8134051241049 -64.47667001967 -1428 
21.4507240992839 -64.47667001967 -1428 
16.1556398941035 -64.7475803979039 -1434 
10.725362049642 -64.47667001967 -1428 
5.38521329803451 -64.7475803979039 -1434 
0 -64.7475803979039 -1434 
-5.38521329803451 -64.7475803979039 -1434 
-10.770426596069 -64.7475803979039 -1434 
-16.2232367137441 -65.0184907761378 -1440 
-21.7211113778463 -65.2894011543717 -1446 
-27.3767119544432 -65.8312219108396 -1458 
-32.9872479846131 -66.1021322890735 -1464 
-38.64284856121 -66.3730426673074 -1470 
-44.5538149008936 -66.9600151534809 -1483 
-50.3258322224271 -67.2309255317148 -1489 
-56.4057906112122 -67.8178980178882 -1502 
-62.8725530234964 -68.7209326120013 -1522 
-69.8049824155268 -69.9400293140538 -1549 
118.963830654436 -81.443373117604 -1537 
111.178930259161 -82.6022675133824 -1526 
103.51420198769 -83.6558078731809 -1516 
95.1810162775517 -87.0271370245362 -1484 
88.0495518054684 -87.0271370245362 -1484 
80.918087333385 -87.0271370245362 -1484 
73.5387678559528 -88.1860314203146 -1473 
66.4486125514276 -88.1860314203146 -1473 
59.2082420921455 -89.2395717801132 -1463 
52.2683019423771 -88.1860314203146 -1473 
45.1030390604735 -89.2395717801132 -1463 
38.0128837559483 -90.2931121399117 -1453 
30.9978360288015 -91.3466524997102 -1443 
24.020342090344 -91.3466524997102 -1443 
17.0428481518864 -91.3466524997102 -1443 
9.9526928473612 -90.2931121399117 -1453 
2.93764512021443 -90.2931121399117 -1453 
-4.07740260693234 -90.2931121399117 -1453 
-11.0924503340791 -90.2931121399117 -1453 
-18.3703745820504 -89.2395717801132 -1463 
-25.7234064074002 -88.1860314203146 -1473 
-32.8135617119254 -88.1860314203146 -1473 
-40.6923465789243 -85.9735966647377 -1494 
-48.3157656828365 -84.8147022689593 -1505 
-56.0218031218649 -83.6558078731809 -1516 
-64.2986581489696 -81.443373117604 -1537 
-72.8383896968988 -79.0202302900674 -1560 
118.468120643739 -89.9055597932715 -1526 
111.178930259161 -89.9055597932715 -1526 
103.889739874582 -89.9055597932715 -1526 
95.5190003757547 -93.1564843320784 -1494 
88.0495518054684 -94.1723982504556 -1484 
80.918087333385 -94.1723982504556 -1484 
73.7866228613016 -94.1723982504556 -1484 
66.4486125514276 -95.2899035606704 -1473 
59.3584572469024 -95.2899035606704 -1473 
52.2683019423771 -95.2899035606704 -1473 
45.1781466378519 -95.2899035606704 -1473 
38.0128837559483 -97.3217313974248 -1453 
30.9978360288015 -98.3376453158019 -1443 
24.020342090344 -98.3376453158019 -1443 
16.967740574508 -97.3217313974248 -1453 
9.9526928473612 -97.3217313974248 -1453 
2.93764512021443 -97.3217313974248 -1453 
-4.26517155037845 -96.3058174790476 -1463 
-11.3177730662144 -96.3058174790476 -1463 
-18.633251102875 -95.2899035606704 -1473 
-25.7234064074002 -95.2899035606704 -1473 
-33.1853442199487 -94.1723982504556 -1484 
-41.1054382545057 -92.0389790218636 -1505 
-48.7701665259761 -90.9214737116487 -1516 
-56.4724485861356 -89.9055597932715 -1526 
-64.8844972525215 -87.5689577810041 -1549 
-72.8383896968988 -86.4514524707892 -1560 
111.178930259161 -97.2088520731606 -1526 
103.889739874582 -97.2088520731606 -1526 
95.890782883778 -99.2632557747678 -1505 
88.3499821149821 -100.339371999419 -1494 
81.1809638542096 -100.339371999419 -1494 
73.7866228613016 -101.317659476375 -1484 
66.4486125514276 -102.393775701026 -1473 
59.3584572469024 -102.393775701026 -1473 
52.2683019423771 -102.393775701026 -1473 
45.1030390604735 -103.372063177982 -1463 
38.0128837559483 -104.350350654938 -1453 
30.9978360288015 -105.328638131894 -1443 
24.020342090344 -105.328638131894 -1443 
17.1179557292649 -106.306925608849 -1433 
10.0653542134289 -105.328638131894 -1443 
2.93764512021443 -104.350350654938 -1453 
-4.07740260693234 -104.350350654938 -1453 
-11.3177730662144 -103.372063177982 -1463 
-18.3703745820504 -103.372063177982 -1463 
-25.7234064074002 -102.393775701026 -1473 
-32.8135617119254 -102.393775701026 -1473 
-40.3168086920321 -101.317659476375 -1484 
-48.3157656828365 -99.2632557747678 -1505 
-56.0218031218649 -98.1871395501164 -1516 
-64.2986581489696 -96.1327358485093 -1537 
-72.2600613510848 -94.9587908761623 -1549 
110.765838583579 -105.452805388584 -1516 
103.51420198769 -105.452805388584 -1516 
95.890782883778 -106.487532527672 -1505 
88.3499821149821 -107.52225966676 -1494 
80.918087333385 -108.462920702294 -1484 
73.7866228613016 -108.462920702294 -1484 
66.4486125514276 -109.497647841382 -1473 
59.2082420921455 -110.438308876916 -1463 
52.0429792102418 -111.378969912451 -1453 
45.027931483095 -111.378969912451 -1453 
38.0128837559483 -111.378969912451 -1453 
30.9978360288015 -113.26029198352 -1433 
24.020342090344 -112.319630947985 -1443 
17.1179557292649 -113.26029198352 -1433 
10.1780155794965 -113.26029198352 -1433 
3.08786027497132 -112.319630947985 -1443 
-3.88963366348622 -112.319630947985 -1443 
-11.0924503340791 -111.378969912451 -1453 
-18.3703745820504 -110.438308876916 -1463 
-25.4229760978864 -110.438308876916 -1463 
-32.8135617119254 -109.497647841382 -1473 
-40.3168086920321 -108.462920702294 -1484 
-47.8613648396969 -107.52225966676 -1494 
-56.0218031218649 -105.452805388584 -1516 
-63.7616389707137 -104.51214435305 -1526 
-72.2600613510848 -102.348623971321 -1549 
118.468120643739 -111.815436632939 -1526 
110.765838583579 -112.718471227052 -1516 
103.101110312109 -113.711809280576 -1505 
95.5190003757547 -114.705147334101 -1494 
88.0495518054684 -115.608181928214 -1484 
80.628923160478 -116.601519981738 -1473 
73.7866228613016 -115.608181928214 -1484 
66.4486125514276 -116.601519981738 -1473 
59.0580269373886 -118.407589169964 -1453 
52.1556405763095 -117.504554575851 -1463 
45.1030390604735 -117.504554575851 -1463 
38.0128837559483 -118.407589169964 -1453 
30.9978360288015 -119.310623764077 -1443 
23.9827883016547 -118.407589169964 -1453 
16.967740574508 -118.407589169964 -1453 
10.0653542134289 -119.310623764077 -1443 
3.08786027497132 -119.310623764077 -1443 
-3.88963366348622 -119.310623764077 -1443 
-11.3177730662144 -117.504554575851 -1463 
-18.633251102875 -116.601519981738 -1473 
-25.7234064074002 -116.601519981738 -1473 
-32.8135617119254 -116.601519981738 -1473 
-40.6923465789243 -114.705147334101 -1494 
-48.3157656828365 -113.711809280576 -1505 
-56.0218031218649 -112.718471227052 -1516 
-63.2734397177538 -112.718471227052 -1516 
-72.2600613510848 -109.738457066479 -1549 
-80.2552629630202 -108.745119012955 -1560 
118.468120643739 -119.118728912828 -1526 
111.178930259161 -119.118728912828 -1526 
103.51420198769 -119.98413706552 -1516 
95.5190003757547 -121.888035001441 -1494 
88.0495518054684 -122.753443154133 -1484 
80.628923160478 -123.705392122094 -1473 
73.5387678559528 -123.705392122094 -1473 
66.4486125514276 -123.705392122094 -1473 
59.0580269373886 -125.436208427477 -1453 
52.1556405763095 -124.570800274785 -1463 
45.1781466378519 -123.705392122094 -1473 
38.0504375446375 -124.570800274785 -1463 
30.9978360288015 -125.436208427477 -1453 
23.9827883016547 -125.436208427477 -1453 
16.8926329971295 -124.570800274785 -1463 
9.9526928473612 -125.436208427477 -1453 
2.93764512021443 -125.436208427477 -1453 
-4.07740260693234 -125.436208427477 -1453 
-11.3177730662144 -124.570800274785 -1463 
-18.633251102875 -123.705392122094 -1473 
-25.7234064074002 -123.705392122094 -1473 
-32.8135617119254 -123.705392122094 -1473 
-40.6923465789243 -121.888035001441 -1494 
-48.3157656828365 -120.93608603348 -1505 
-56.0218031218649 -119.98413706552 -1516 
-63.2734397177538 -119.98413706552 -1516 
-71.6291577011058 -118.166779944867 -1537 
-80.2552629630202 -116.176341193676 -1560 
118.468120643739 -126.422021192717 -1526 
111.178930259161 -126.422021192717 -1526 
103.101110312109 -128.160362786385 -1505 
95.1810162775517 -129.898704380052 -1484 
88.0495518054684 -129.898704380052 -1484 
80.628923160478 -130.809264262449 -1473 
73.5387678559528 -130.809264262449 -1473 
66.4486125514276 -130.809264262449 -1473 
59.0580269373886 -132.46482768499 -1453 
52.0429792102418 -132.46482768499 -1453 
45.027931483095 -132.46482768499 -1453 
38.0128837559483 -132.46482768499 -1453 
30.9978360288015 -133.29260939626 -1443 
24.020342090344 -133.29260939626 -1443 
17.0428481518864 -133.29260939626 -1443 
9.9526928473612 -132.46482768499 -1453 
2.93764512021443 -132.46482768499 -1453 
-4.07740260693234 -132.46482768499 -1453 
-11.3177730662144 -131.63704597372 -1463 
-18.3703745820504 -131.63704597372 -1463 
-25.7234064074002 -130.809264262449 -1473 
-33.1853442199487 -129.898704380052 -1484 
-40.3168086920321 -129.898704380052 -1484 
-48.3157656828365 -128.160362786385 -1505 
-56.0218031218649 -127.249802903987 -1516 
-63.2734397177538 -127.249802903987 -1516 
-71.6291577011058 -125.51146131032 -1537 
-80.2552629630202 -123.607563374398 -1560 
118.468120643739 -133.725313472606 -1526 
110.765838583579 -134.515468742455 -1516 
103.101110312109 -135.384639539289 -1505 
95.1810162775517 -137.043965605971 -1484 
88.0495518054684 -137.043965605971 -1484 
80.628923160478 -137.913136402805 -1473 
73.5387678559528 -137.913136402805 -1473 
66.4486125514276 -137.913136402805 -1473 
59.2082420921455 -138.703291672654 -1463 
52.0429792102418 -139.493446942503 -1453 
45.027931483095 -139.493446942503 -1453 
38.0128837559483 -139.493446942503 -1453 
30.9978360288015 -140.283602212352 -1443 
24.020342090344 -140.283602212352 -1443 
16.967740574508 -139.493446942503 -1453 
9.9526928473612 -139.493446942503 -1453 
2.93764512021443 -139.493446942503 -1453 
-4.26517155037845 -138.703291672654 -1463 
-11.3177730662144 -138.703291672654 -1463 
-18.3703745820504 -138.703291672654 -1463 
-25.7234064074002 -137.913136402805 -1473 
-33.5233283181517 -136.253810336123 -1494 
-40.3168086920321 -137.043965605971 -1484 
-48.3157656828365 -135.384639539289 -1505 
-55.5260931111672 -135.384639539289 -1505 
-63.2734397177538 -134.515468742455 -1516 
-71.6291577011058 -132.856142675772 -1537 
-80.8749004763924 -130.169614758286 -1571 
125.757311028317 -141.028605752495 -1526 
118.017475179468 -141.781134580923 -1516 
110.311437740439 -142.608916292193 -1505 
103.101110312109 -142.608916292193 -1505 
95.1810162775517 -144.189226831891 -1484 
88.0495518054684 -144.189226831891 -1484 
80.628923160478 -145.017008543161 -1473 
73.5387678559528 -145.017008543161 -1473 
66.4486125514276 -145.017008543161 -1473 
59.3584572469024 -145.017008543161 -1473 
52.1556405763095 -145.769537371589 -1463 
45.027931483095 -146.522066200016 -1453 
38.0504375446375 -145.769537371589 -1463 
30.9978360288015 -146.522066200016 -1453 
23.9827883016547 -146.522066200016 -1453 
16.967740574508 -146.522066200016 -1453 
9.9526928473612 -146.522066200016 -1453 
2.78742996545754 -145.769537371589 -1463 
-4.26517155037845 -145.769537371589 -1463 
-11.3177730662144 -145.769537371589 -1463 
-18.3703745820504 -145.769537371589 -1463 
-25.7234064074002 -145.017008543161 -1473 
-33.1853442199487 -144.189226831891 -1484 
-40.6923465789243 -143.436698003463 -1494 
-48.3157656828365 -142.608916292193 -1505 
-55.5260931111672 -142.608916292193 -1505 
-62.7364205394979 -142.608916292193 -1505 
-71.6291577011058 -140.200824041225 -1537 
-81.5508686727984 -136.739191430458 -1583 
118.017475179468 -149.04680041939 -1516 
109.8570368973 -150.619585670804 -1494 
102.312480749635 -151.33448805781 -1484 
95.1810162775517 -151.33448805781 -1484 
87.7190784650032 -152.120880683517 -1473 
80.628923160478 -152.120880683517 -1473 
73.5387678559528 -152.120880683517 -1473 
66.4486125514276 -152.120880683517 -1473 
59.3584572469024 -152.120880683517 -1473 
52.2683019423771 -152.120880683517 -1473 
45.1030390604735 -152.835783070523 -1463 
38.0504375446375 -152.835783070523 -1463 
30.9978360288015 -153.550685457529 -1453 
24.020342090344 -154.265587844535 -1443 
17.0428481518864 -154.265587844535 -1443 
9.9526928473612 -153.550685457529 -1453 
2.78742996545754 -152.835783070523 -1463 
-4.26517155037845 -152.835783070523 -1463 
-11.3177730662144 -152.835783070523 -1463 
-18.3703745820504 -152.835783070523 -1463 
-25.7234064074002 -152.120880683517 -1473 
-32.8135617119254 -152.120880683517 -1473 
-40.3168086920321 -151.33448805781 -1484 
-47.8613648396969 -150.619585670804 -1494 
-55.0303831004695 -150.619585670804 -1494 
-62.7364205394979 -149.833193045097 -1505 
-71.0508293552918 -148.331898032384 -1526 
-80.2552629630202 -145.901229916563 -1560 
125.757311028317 -155.635190312273 -1526 
118.017475179468 -156.312466257858 -1516 
109.8570368973 -157.802473338145 -1494 
102.312480749635 -158.479749283729 -1484 
95.1810162775517 -158.479749283729 -1484 
87.7190784650032 -159.224752823873 -1473 
80.628923160478 -159.224752823873 -1473 
73.3134451238174 -159.902028769457 -1463 
66.4486125514276 -159.224752823873 -1473 
59.3584572469024 -159.224752823873 -1473 
52.2683019423771 -159.224752823873 -1473 
45.1030390604735 -159.902028769457 -1463 
38.0128837559483 -160.579304715042 -1453 
30.9978360288015 -161.256580660627 -1443 
24.0578958790332 -161.933856606212 -1433 
17.0428481518864 -161.256580660627 -1443 
9.9526928473612 -160.579304715042 -1453 
2.93764512021443 -160.579304715042 -1453 
-4.26517155037845 -159.902028769457 -1463 
-11.3177730662144 -159.902028769457 -1463 
-18.633251102875 -159.224752823873 -1473 
-25.7234064074002 -159.224752823873 -1473 
-32.8135617119254 -159.224752823873 -1473 
-40.3168086920321 -158.479749283729 -1484 
-47.4482731641154 -158.479749283729 -1484 
-55.0303831004695 -157.802473338145 -1494 
-62.7364205394979 -157.057469798001 -1505 
-71.0508293552918 -155.635190312273 -1526 
-79.6356254496481 -154.077455637428 -1549 
125.757311028317 -162.938482592162 -1526 
118.017475179468 -163.578132096326 -1516 
109.8570368973 -164.985361005485 -1494 
102.312480749635 -165.625010509649 -1484 
95.1810162775517 -165.625010509649 -1484 
87.7190784650032 -166.328624964228 -1473 
80.628923160478 -166.328624964228 -1473 
73.3134451238174 -166.968274468392 -1463 
66.4486125514276 -166.328624964228 -1473 
59.3584572469024 -166.328624964228 -1473 
52.2683019423771 -166.328624964228 -1473 
45.027931483095 -167.607923972555 -1453 
37.975329967259 -168.247573476719 -1443 
30.9978360288015 -168.247573476719 -1443 
24.0578958790332 -168.887222980882 -1433 
17.1179557292649 -168.887222980882 -1433 
9.9526928473612 -167.607923972555 -1453 
2.93764512021443 -167.607923972555 -1453 
-4.07740260693234 -167.607923972555 -1453 
-11.3177730662144 -166.968274468392 -1463 
-18.922415275782 -165.625010509649 -1484 
-26.0538797478654 -165.625010509649 -1484 
-32.8135617119254 -166.328624964228 -1473 
-39.9037170164506 -166.328624964228 -1473 
-47.4482731641154 -165.625010509649 -1484 
-55.0303831004695 -164.985361005485 -1494 
-62.199401361242 -164.985361005485 -1494 
-71.0508293552918 -162.938482592162 -1526 
-79.6356254496481 -161.467288732587 -1549 
125.757311028317 -170.241774872052 -1526 
117.52176516877 -171.50602330381 -1505 
109.8570368973 -172.168248672826 -1494 
102.312480749635 -172.770271735568 -1484 
95.1810162775517 -172.770271735568 -1484 
87.7190784650032 -173.432497104584 -1473 
80.628923160478 -173.432497104584 -1473 
73.3134451238174 -174.034520167326 -1463 
66.4486125514276 -173.432497104584 -1473 
59.3584572469024 -173.432497104584 -1473 
52.1556405763095 -174.034520167326 -1463 
45.027931483095 -174.636543230068 -1453 
38.0128837559483 -174.636543230068 -1453 
30.9978360288015 -175.23856629281 -1443 
24.0578958790332 -175.840589355552 -1433 
17.1179557292649 -175.840589355552 -1433 
9.9526928473612 -174.636543230068 -1453 
2.93764512021443 -174.636543230068 -1453 
-4.07740260693234 -174.636543230068 -1453 
-11.5430957983498 -173.432497104584 -1473 
-18.922415275782 -172.770271735568 -1484 
-26.0538797478654 -172.770271735568 -1484 
-32.8135617119254 -173.432497104584 -1473 
-39.9037170164506 -173.432497104584 -1473 
-47.4482731641154 -172.770271735568 -1484 
-55.0303831004695 -172.168248672826 -1494 
-62.7364205394979 -171.50602330381 -1505 
-70.5250763136427 -170.843797934794 -1516 
-79.6356254496481 -168.857121827745 -1549 
132.520748371246 -178.109463773261 -1516 
125.269111775357 -178.109463773261 -1516 
117.52176516877 -178.730300056714 -1505 
109.8570368973 -179.351136340167 -1494 
102.312480749635 -179.915532961487 -1484 
94.8092337695284 -180.53636924494 -1473 
87.7190784650032 -180.53636924494 -1473 
80.628923160478 -180.53636924494 -1473 
73.5387678559528 -180.53636924494 -1473 
66.4486125514276 -180.53636924494 -1473 
59.3584572469024 -180.53636924494 -1473 
52.2683019423771 -180.53636924494 -1473 
45.1030390604735 -181.100765866261 -1463 
38.0504375446375 -181.100765866261 -1463 
30.9978360288015 -182.793955730223 -1433 
24.0578958790332 -182.793955730223 -1433 
17.0428481518864 -182.229559108902 -1443 
9.9526928473612 -181.665162487581 -1453 
2.93764512021443 -181.665162487581 -1453 
-4.07740260693234 -181.665162487581 -1453 
-11.5430957983498 -180.53636924494 -1473 
-18.633251102875 -180.53636924494 -1473 
-25.7234064074002 -180.53636924494 -1473 
-32.8135617119254 -180.53636924494 -1473 
-39.9037170164506 -180.53636924494 -1473 
-46.9938723209758 -180.53636924494 -1473 
-55.0303831004695 -179.351136340167 -1494 
-62.7364205394979 -178.730300056714 -1505 
-70.5250763136427 -178.109463773261 -1516 
-79.6356254496481 -176.246954922903 -1549 
132.520748371246 -185.375129611729 -1516 
125.757311028317 -184.84835943183 -1526 
117.52176516877 -185.954576809618 -1505 
109.443945221718 -187.060794187407 -1484 
101.899389074054 -187.640241385296 -1473 
94.8092337695284 -187.640241385296 -1473 
87.7190784650032 -187.640241385296 -1473 
80.3660466396534 -188.167011565195 -1463 
73.5387678559528 -187.640241385296 -1473 
66.4486125514276 -187.640241385296 -1473 
59.3584572469024 -187.640241385296 -1473 
52.2683019423771 -187.640241385296 -1473 
45.1030390604735 -188.167011565195 -1463 
38.0128837559483 -188.693781745094 -1453 
30.9978360288015 -189.220551924994 -1443 
24.020342090344 -189.220551924994 -1443 
17.0428481518864 -189.220551924994 -1443 
9.9526928473612 -188.693781745094 -1453 
2.93764512021443 -188.693781745094 -1453 
-4.26517155037845 -188.167011565195 -1463 
-11.5430957983498 -187.640241385296 -1473 
-18.922415275782 -187.060794187407 -1484 
-26.0538797478654 -187.060794187407 -1484 
-32.8135617119254 -187.640241385296 -1473 
-39.9037170164506 -187.640241385296 -1473 
-47.4482731641154 -187.060794187407 -1484 
-55.0303831004695 -186.534024007507 -1494 
-62.7364205394979 -185.954576809618 -1505 
-70.5250763136427 -185.375129611729 -1516 
-79.6356254496481 -183.636788018061 -1549 
133.046501412895 -192.151651711719 -1526 
125.757311028317 -192.151651711719 -1526 
117.026055158072 -193.716911674848 -1494 
109.443945221718 -194.206055413326 -1484 
101.899389074054 -194.744113525652 -1473 
94.8092337695284 -194.744113525652 -1473 
87.7190784650032 -194.744113525652 -1473 
80.3660466396534 -195.23325726413 -1463 
73.3134451238174 -195.23325726413 -1463 
66.4486125514276 -194.744113525652 -1473 
59.3584572469024 -194.744113525652 -1473 
52.2683019423771 -194.744113525652 -1473 
45.1030390604735 -195.23325726413 -1463 
38.0504375446375 -195.23325726413 -1463 
30.9978360288015 -195.722401002607 -1453 
23.9827883016547 -195.722401002607 -1453 
16.967740574508 -195.722401002607 -1453 
9.84003148129353 -195.23325726413 -1463 
2.78742996545754 -195.23325726413 -1463 
-4.45294049382456 -194.744113525652 -1473 
-11.5430957983498 -194.744113525652 -1473 
-18.922415275782 -194.206055413326 -1484 
-26.0538797478654 -194.206055413326 -1484 
-32.8135617119254 -194.744113525652 -1473 
-39.9037170164506 -194.744113525652 -1473 
-47.4482731641154 -194.206055413326 -1484 
-55.5260931111672 -193.178853562522 -1505 
-62.7364205394979 -193.178853562522 -1505 
-70.5250763136427 -192.640795450197 -1516 
-79.6356254496481 -191.02662111322 -1549 
133.046501412895 -199.454943991608 -1526 
125.269111775357 -199.906461288664 -1516 
117.026055158072 -200.899799342189 -1494 
109.443945221718 -201.351316639245 -1484 
101.899389074054 -201.847985666007 -1473 
94.8092337695284 -201.847985666007 -1473 
87.7190784650032 -201.847985666007 -1473 
80.3660466396534 -202.299502963064 -1463 
73.0881223916821 -202.751020260121 -1453 
66.2608436079815 -202.299502963064 -1463 
59.3584572469024 -201.847985666007 -1473 
52.2683019423771 -201.847985666007 -1473 
45.1781466378519 -201.847985666007 -1473 
38.0879913333267 -201.847985666007 -1473 
30.9978360288015 -202.299502963064 -1463 
23.9452345129655 -202.299502963064 -1463 
16.8926329971295 -202.299502963064 -1463 
9.84003148129353 -202.299502963064 -1463 
2.78742996545754 -202.299502963064 -1463 
-4.45294049382456 -201.847985666007 -1473 
-11.5430957983498 -201.847985666007 -1473 
-18.922415275782 -201.351316639245 -1484 
-26.0538797478654 -201.351316639245 -1484 
-32.8135617119254 -201.847985666007 -1473 
-39.9037170164506 -201.847985666007 -1473 
-47.8613648396969 -200.899799342189 -1494 
-55.5260931111672 -200.403130315427 -1505 
-62.7364205394979 -200.403130315427 -1505 
-70.5250763136427 -199.906461288664 -1516 
-78.9596572532421 -198.958274964846 -1537 
133.046501412895 -206.758236271497 -1526 
124.732092597101 -207.627407068331 -1505 
116.575409693802 -208.496577865165 -1484 
108.989544378579 -208.951857806363 -1473 
101.899389074054 -208.951857806363 -1473 
94.8092337695284 -208.951857806363 -1473 
87.7190784650032 -208.951857806363 -1473 
80.628923160478 -208.951857806363 -1473 
73.0881223916821 -209.779639517634 -1453 
66.2608436079815 -209.365748661998 -1463 
59.3584572469024 -208.951857806363 -1473 
52.2683019423771 -208.951857806363 -1473 
45.1781466378519 -208.951857806363 -1473 
38.0879913333267 -208.951857806363 -1473 
30.9978360288015 -209.365748661998 -1463 
23.9076807242763 -208.951857806363 -1473 
16.8175254197511 -208.951857806363 -1473 
9.84003148129353 -209.365748661998 -1463 
2.78742996545754 -209.365748661998 -1463 
-4.45294049382456 -208.951857806363 -1473 
-11.7909508036986 -208.496577865165 -1484 
-18.922415275782 -208.496577865165 -1484 
-26.3543100573791 -208.082687009529 -1494 
-32.8135617119254 -208.951857806363 -1473 
-39.9037170164506 -208.951857806363 -1473 
-47.4482731641154 -208.496577865165 -1484 
-55.0303831004695 -208.082687009529 -1494 
-62.7364205394979 -207.627407068331 -1505 
-70.5250763136427 -207.172127127132 -1516 
-78.9596572532421 -206.302956330298 -1537 
133.624829758709 -213.647637695751 -1537 
124.195073418845 -215.26557467687 -1494 
116.575409693802 -215.641839091084 -1484 
108.989544378579 -216.055729946719 -1473 
101.523851187161 -216.431994360933 -1463 
94.4712496713254 -216.431994360933 -1463 
87.7190784650032 -216.055729946719 -1473 
80.3660466396534 -216.431994360933 -1463 
73.3134451238174 -216.431994360933 -1463 
66.4486125514276 -216.055729946719 -1473 
59.3584572469024 -216.055729946719 -1473 
52.2683019423771 -216.055729946719 -1473 
45.1781466378519 -216.055729946719 -1473 
38.0879913333267 -216.055729946719 -1473 
30.9978360288015 -216.431994360933 -1463 
23.9076807242763 -216.055729946719 -1473 
16.7349070846348 -215.641839091084 -1484 
9.72737011522586 -216.055729946719 -1473 
2.63721481070065 -216.055729946719 -1473 
-4.45294049382456 -216.055729946719 -1473 
-12.016273535834 -215.26557467687 -1494 
-19.1852917966066 -215.26557467687 -1494 
-26.0538797478654 -215.641839091084 -1484 
-32.8135617119254 -216.055729946719 -1473 
-39.9037170164506 -216.055729946719 -1473 
-47.4482731641154 -215.641839091084 -1484 
-55.0303831004695 -215.26557467687 -1494 
-62.7364205394979 -214.851683821235 -1505 
-70.5250763136427 -214.4377929656 -1516 
-78.9596572532421 -213.647637695751 -1537 
-87.6721362291417 -212.782229543059 -1560 
132.520748371246 -221.703458804068 -1516 
123.706874165885 -222.787100317003 -1484 
116.575409693802 -222.787100317003 -1484 
108.989544378579 -223.159602087075 -1473 
101.899389074054 -223.159602087075 -1473 
94.4712496713254 -223.498240059867 -1463 
87.7190784650032 -223.159602087075 -1473 
80.628923160478 -223.159602087075 -1473 
73.3134451238174 -223.498240059867 -1463 
66.4486125514276 -223.159602087075 -1473 
59.3584572469024 -223.159602087075 -1473 
52.3922294450516 -222.787100317003 -1484 
45.2607649729682 -222.787100317003 -1484 
38.0879913333267 -223.159602087075 -1473 
30.9978360288015 -223.159602087075 -1473 
23.8663715567181 -222.787100317003 -1484 
16.6597995072563 -222.448462344211 -1494 
9.60344261255143 -222.787100317003 -1484 
2.47197814046807 -222.787100317003 -1484 
-4.8472552750614 -222.448462344211 -1494 
-12.016273535834 -222.448462344211 -1494 
-19.1852917966066 -222.448462344211 -1494 
-26.3543100573791 -222.448462344211 -1494 
-33.1853442199487 -222.787100317003 -1484 
-40.3168086920321 -222.787100317003 -1484 
-47.4482731641154 -222.787100317003 -1484 
-54.5797376361988 -222.787100317003 -1484 
-62.7364205394979 -222.075960574139 -1505 
-70.5250763136427 -221.703458804068 -1516 
-78.9596572532421 -220.992319061204 -1537 
133.046501412895 -228.668113111164 -1526 
124.195073418845 -229.631350011552 -1494 
116.575409693802 -229.932361542923 -1484 
108.989544378579 -230.263474227431 -1473 
101.899389074054 -230.263474227431 -1473 
94.4712496713254 -230.564485758802 -1463 
87.7190784650032 -230.263474227431 -1473 
80.628923160478 -230.263474227431 -1473 
73.5387678559528 -230.263474227431 -1473 
66.4486125514276 -230.263474227431 -1473 
59.5236939171349 -229.932361542923 -1484 
52.3922294450516 -229.932361542923 -1484 
45.2607649729682 -229.932361542923 -1484 
38.1293005008849 -229.932361542923 -1484 
30.9978360288015 -229.932361542923 -1484 
23.7875086004708 -229.300237327043 -1505 
16.5771811721401 -229.300237327043 -1505 
9.49078124648376 -229.631350011552 -1494 
2.32176298571118 -229.631350011552 -1494 
-5.05380111285212 -229.300237327043 -1505 
-12.016273535834 -229.631350011552 -1494 
-19.1852917966066 -229.631350011552 -1494 
-26.3543100573791 -229.631350011552 -1494 
-33.5233283181517 -229.631350011552 -1494 
-40.6923465789243 -229.631350011552 -1494 
-47.4482731641154 -229.932361542923 -1484 
-54.0840276255011 -230.263474227431 -1473 
-62.199401361242 -229.631350011552 -1494 
-70.5250763136427 -228.969124642535 -1516 
-78.3400197398699 -228.668113111164 -1526 
-85.629210124448 -228.668113111164 -1526 
133.046501412895 -235.971405391053 -1526 
124.195073418845 -236.814237678892 -1494 
116.575409693802 -237.077622768842 -1484 
108.989544378579 -237.367346367786 -1473 
101.899389074054 -237.367346367786 -1473 
94.4712496713254 -237.630731457736 -1463 
87.4186481554894 -237.630731457736 -1463 
80.628923160478 -237.367346367786 -1473 
73.5387678559528 -237.367346367786 -1473 
66.4486125514276 -237.367346367786 -1473 
59.5236939171349 -237.077622768842 -1484 
52.3922294450516 -237.077622768842 -1484 
45.2607649729682 -237.077622768842 -1484 
38.1293005008849 -237.077622768842 -1484 
30.9978360288015 -236.814237678892 -1494 
23.7875086004708 -236.524514079948 -1505 
16.4945628370238 -236.234790481003 -1516 
9.49078124648376 -236.814237678892 -1494 
2.1565263154786 -236.524514079948 -1505 
-5.05380111285212 -236.524514079948 -1505 
-12.2641285411828 -236.524514079948 -1505 
-19.1852917966066 -236.814237678892 -1494 
-26.3543100573791 -236.814237678892 -1494 
-33.5233283181517 -236.814237678892 -1494 
-40.6923465789243 -236.814237678892 -1494 
-47.4482731641154 -237.077622768842 -1484 
-54.5797376361988 -237.077622768842 -1484 
-62.199401361242 -236.814237678892 -1494 
-69.9467479678286 -236.524514079948 -1505 
-78.3400197398699 -235.971405391053 -1526 
132.520748371246 -243.500456319471 -1516 
124.732092597101 -243.748790832852 -1505 
116.575409693802 -244.222883994761 -1484 
108.989544378579 -244.471218508142 -1473 
101.899389074054 -244.471218508142 -1473 
94.4712496713254 -244.696977156671 -1463 
87.4186481554894 -244.696977156671 -1463 
80.3660466396534 -244.696977156671 -1463 
73.5387678559528 -244.471218508142 -1473 
66.4486125514276 -244.471218508142 -1473 
59.5236939171349 -244.222883994761 -1484 
52.3922294450516 -244.222883994761 -1484 
45.2607649729682 -244.222883994761 -1484 
38.2081634571322 -243.748790832852 -1505 
30.9978360288015 -243.748790832852 -1505 
23.7086456442234 -243.274697670943 -1526 
16.4945628370238 -243.500456319471 -1516 
9.36685374380933 -243.748790832852 -1505 
2.1565263154786 -243.748790832852 -1505 
-5.05380111285212 -243.748790832852 -1505 
-12.2641285411828 -243.748790832852 -1505 
-19.1852917966066 -243.997125346233 -1494 
-26.3543100573791 -243.997125346233 -1494 
-33.5233283181517 -243.997125346233 -1494 
-40.3168086920321 -244.222883994761 -1484 
-47.4482731641154 -244.222883994761 -1484 
-54.5797376361988 -244.222883994761 -1484 
-62.199401361242 -243.997125346233 -1494 
-69.9467479678286 -243.748790832852 -1505 
-77.7767129095316 -243.500456319471 -1516 
133.046501412895 -250.577989950832 -1526 
125.269111775357 -250.766122157938 -1516 
116.575409693802 -251.368145220681 -1484 
108.989544378579 -251.575090648498 -1473 
101.899389074054 -251.575090648498 -1473 
94.4712496713254 -251.763222855605 -1463 
87.4186481554894 -251.763222855605 -1463 
80.628923160478 -251.575090648498 -1473 
73.5387678559528 -251.575090648498 -1473 
66.4486125514276 -251.575090648498 -1473 
59.5236939171349 -251.368145220681 -1484 
52.5048908111192 -251.180013013574 -1494 
45.418490885463 -250.973067585756 -1505 
38.2494726246904 -250.766122157938 -1516 
30.9978360288015 -250.973067585756 -1505 
23.6673364766653 -250.371044523014 -1537 
16.4194552596453 -250.577989950832 -1526 
9.36685374380933 -250.973067585756 -1505 
2.1565263154786 -250.973067585756 -1505 
-5.05380111285212 -250.973067585756 -1505 
-12.2641285411828 -250.973067585756 -1505 
-19.4744559695136 -250.973067585756 -1505 
-26.6847833978443 -250.973067585756 -1505 
-33.5233283181517 -251.180013013574 -1494 
-40.3168086920321 -251.368145220681 -1484 
-47.4482731641154 -251.368145220681 -1484 
-55.0303831004695 -251.180013013574 -1494 
-62.199401361242 -251.180013013574 -1494 
-69.9467479678286 -250.973067585756 -1505 
-77.7767129095316 -250.766122157938 -1516 
132.520748371246 -258.031787996406 -1516 
125.269111775357 -258.031787996406 -1516 
117.026055158072 -258.362900680914 -1494 
108.989544378579 -258.678962788854 -1473 
101.899389074054 -258.678962788854 -1473 
94.4712496713254 -258.829468554539 -1463 
87.7190784650032 -258.678962788854 -1473 
80.628923160478 -258.678962788854 -1473 
73.5387678559528 -258.678962788854 -1473 
66.4486125514276 -258.678962788854 -1473 
59.5236939171349 -258.5134064466 -1484 
52.6288183137937 -258.19734433866 -1505 
45.5011092205792 -258.031787996406 -1516 
38.2494726246904 -258.031787996406 -1516 
30.9978360288015 -258.19734433866 -1505 
23.6673364766653 -257.715725888467 -1537 
16.336836924529 -257.715725888467 -1537 
9.24292624113489 -258.031787996406 -1516 
1.99128964524602 -258.031787996406 -1516 
-5.26034695064285 -258.031787996406 -1516 
-12.2641285411828 -258.19734433866 -1505 
-19.4744559695136 -258.19734433866 -1505 
-26.6847833978443 -258.19734433866 -1505 
-33.5233283181517 -258.362900680914 -1494 
-40.3168086920321 -258.5134064466 -1484 
-46.9938723209758 -258.678962788854 -1473 
-54.5797376361988 -258.5134064466 -1484 
-62.199401361242 -258.362900680914 -1494 
-69.9467479678286 -258.19734433866 -1505 
-78.3400197398699 -257.881282230721 -1526 
132.520748371246 -265.297453834874 -1516 
125.269111775357 -265.297453834874 -1516 
117.026055158072 -265.545788348255 -1494 
109.443945221718 -265.658667672519 -1484 
101.899389074054 -265.78283492921 -1473 
94.8092337695284 -265.78283492921 -1473 
87.7190784650032 -265.78283492921 -1473 
80.628923160478 -265.78283492921 -1473 
73.5387678559528 -265.78283492921 -1473 
66.6551583892183 -265.658667672519 -1484 
59.8391457421244 -265.421621091564 -1505 
52.7527458164681 -265.297453834874 -1516 
45.5011092205792 -265.297453834874 -1516 
38.2870264133796 -265.18457451061 -1526 
30.9978360288015 -265.297453834874 -1516 
23.6222719302382 -264.924952064802 -1549 
16.336836924529 -265.060407253919 -1537 
9.24292624113489 -265.297453834874 -1516 
1.99128964524602 -265.297453834874 -1516 
-5.44811589408896 -265.18457451061 -1526 
-12.5119835465317 -265.297453834874 -1516 
-19.4744559695136 -265.421621091564 -1505 
-26.6847833978443 -265.421621091564 -1505 
-33.895110826175 -265.421621091564 -1505 
-40.6923465789243 -265.545788348255 -1494 
-47.4482731641154 -265.658667672519 -1484 
-54.0840276255011 -265.78283492921 -1473 
-61.7112021082821 -265.658667672519 -1484 
-69.9467479678286 -265.421621091564 -1505 
-78.3400197398699 -265.18457451061 -1526 
132.520748371246 -272.563119673342 -1516 
125.269111775357 -272.563119673342 -1516 
117.52176516877 -272.645897844469 -1505 
109.8570368973 -272.728676015596 -1494 
102.312480749635 -272.803928898438 -1484 
94.8092337695284 -272.886707069565 -1473 
87.7190784650032 -272.886707069565 -1473 
80.628923160478 -272.886707069565 -1473 
73.5387678559528 -272.886707069565 -1473 
66.6551583892183 -272.803928898438 -1484 
59.8391457421244 -272.645897844469 -1505 
52.7527458164681 -272.563119673342 -1516 
45.5762167979577 -272.487866790499 -1526 
38.3283355809377 -272.405088619372 -1537 
30.9978360288015 -272.405088619372 -1537 
23.6222719302382 -272.314785159961 -1549 
16.2467078316749 -272.314785159961 -1549 
9.24292624113489 -272.563119673342 -1516 
1.99128964524602 -272.563119673342 -1516 
-5.65466173187968 -272.405088619372 -1537 
-12.5119835465317 -272.563119673342 -1516 
-19.7636201424206 -272.563119673342 -1516 
-26.6847833978443 -272.645897844469 -1505 
-33.895110826175 -272.645897844469 -1505 
-41.1054382545057 -272.645897844469 -1505 
-47.4482731641154 -272.803928898438 -1484 
-54.0840276255011 -272.886707069565 -1473 
-61.7112021082821 -272.803928898438 -1484 
-69.9467479678286 -272.645897844469 -1505 
-78.3400197398699 -272.487866790499 -1526 
133.046501412895 -279.791159070388 -1526 
125.757311028317 -279.791159070388 -1526 
118.017475179468 -279.828785511809 -1516 
110.311437740439 -279.870174597373 -1505 
102.312480749635 -279.949190124358 -1484 
94.8092337695284 -279.990579209921 -1473 
87.4186481554894 -280.028205651343 -1463 
80.628923160478 -279.990579209921 -1473 
73.7866228613016 -279.949190124358 -1484 
66.6551583892183 -279.949190124358 -1484 
59.8391457421244 -279.870174597373 -1505 
52.8654071825358 -279.791159070388 -1526 
45.5762167979577 -279.791159070388 -1526 
38.3734001273648 -279.704618255119 -1549 
16.336836924529 -279.749769984824 -1537 
9.13026487506723 -279.791159070388 -1526 
1.99128964524602 -279.828785511809 -1516 
-5.44811589408896 -279.791159070388 -1526 
-12.5119835465317 -279.828785511809 -1516 
-19.7636201424206 -279.828785511809 -1516 
-26.6847833978443 -279.870174597373 -1505 
-33.895110826175 -279.870174597373 -1505 
-41.1054382545057 -279.870174597373 -1505 
-47.8613648396969 -279.911563682936 -1494 
-54.5797376361988 -279.949190124358 -1484 
-61.7112021082821 -279.949190124358 -1484 
-69.9467479678286 -279.870174597373 -1505 
-78.3400197398699 -279.791159070388 -1526 
133.624829758709 -287.094451350277 -1537 
125.757311028317 -287.094451350277 -1526 
118.468120643739 -287.094451350277 -1526 
110.311437740439 -287.094451350277 -1505 
102.312480749635 -287.094451350277 -1484 
94.8092337695284 -287.094451350277 -1473 
87.7190784650032 -287.094451350277 -1473 
80.628923160478 -287.094451350277 -1473 
73.7866228613016 -287.094451350277 -1484 
66.6551583892183 -287.094451350277 -1484 
60.004382412357 -287.094451350277 -1516 
52.8654071825358 -287.094451350277 -1526 
45.658835133074 -287.094451350277 -1537 
38.414709294923 -287.094451350277 -1560 
16.2467078316749 -287.094451350277 -1549 
9.00633737239279 -287.094451350277 -1537 
1.67583782025655 -287.094451350277 -1537 
-5.65466173187968 -287.094451350277 -1537 
-12.5119835465317 -287.094451350277 -1516 
-19.7636201424206 -287.094451350277 -1516 
-27.0152567383095 -287.094451350277 -1516 
-34.2668933341983 -287.094451350277 -1516 
-41.1054382545057 -287.094451350277 -1505 
-48.3157656828365 -287.094451350277 -1505 
-55.0303831004695 -287.094451350277 -1494 
